332.164000 548.341000 234.875000
330.273200 548.047207 235.456861
328.382400 547.753415 236.038722
326.491601 547.459622 236.620582
324.600801 547.165830 237.202443
322.710001 546.872037 237.784304
320.819201 546.578245 238.366165
318.928401 546.284452 238.948025
317.037601 545.990660 239.529886
315.146802 545.696867 240.111747
313.256002 545.403075 240.693608
311.365202 545.109282 241.275469
309.474402 544.815490 241.857329
307.583602 544.521697 242.439190
305.692802 544.227905 243.021051
303.802003 543.934112 243.602912
301.911203 543.640320 244.184772
300.020403 543.346527 244.766633
298.129603 543.052735 245.348494
296.238803 542.758942 245.930355
294.348003 542.465150 246.512215
292.457204 542.171357 247.094076
290.566404 541.877565 247.675937
288.675604 541.583772 248.257798
286.784804 541.289980 248.839659
284.894004 540.996187 249.421519
283.003204 540.702395 250.003380
281.112405 540.408602 250.585241
279.221605 540.114810 251.167102
277.330805 539.821017 251.748962
275.440005 539.527225 252.330823
272.046875 539.000000 253.375000
272.097417 537.718924 254.910021
272.147959 536.437849 256.445043
272.198501 535.156773 257.980064
272.249043 533.875697 259.515086
272.299584 532.594622 261.050107
272.350126 531.313546 262.585128
272.400668 530.032470 264.120150
272.451210 528.751395 265.655171
272.501752 527.470319 267.190193
272.552294 526.189243 268.725214
272.602836 524.908168 270.260235
272.653378 523.627092 271.795257
272.703920 522.346016 273.330278
272.754461 521.064941 274.865300
272.805003 519.783865 276.400321
272.855545 518.502790 277.935342
272.906087 517.221714 279.470364
272.956629 515.940638 281.005385
273.007171 514.659563 282.540407
273.057713 513.378487 284.075428
273.108255 512.097411 285.610449
273.158797 510.816336 287.145471
273.209338 509.535260 288.680492
273.259880 508.254184 290.215514
273.310422 506.973109 291.750535
273.360964 505.692033 293.285556
273.411506 504.410957 294.820578
273.462048 503.129882 296.355599
273.512590 501.848806 297.890620
273.563132 500.567730 299.425642
273.613673 499.286655 300.960663
273.664215 498.005579 302.495685
273.714757 496.724503 304.030706
273.765299 495.443428 305.565727
273.815841 494.162352 307.100749
273.866383 492.881276 308.635770
273.916925 491.600201 310.170792
273.967467 490.319125 311.705813
274.018009 489.038049 313.240834
274.068550 487.756974 314.775856
274.119092 486.475898 316.310877
274.169634 485.194823 317.845899
274.220176 483.913747 319.380920
274.270718 482.632671 320.915941
274.321260 481.351596 322.450963
274.371802 480.070520 323.985984
274.422344 478.789444 325.521006
274.472886 477.508369 327.056027
274.523427 476.227293 328.591048
274.573969 474.946217 330.126070
274.624511 473.665142 331.661091
274.675053 472.384066 333.196113
274.725595 471.102990 334.731134
274.776137 469.821915 336.266155
274.826679 468.540839 337.801177
274.877221 467.259763 339.336198
274.927763 465.978688 340.871220
274.978304 464.697612 342.406241
275.028846 463.416536 343.941262
275.079388 462.135461 345.476284
275.129930 460.854385 347.011305
275.180472 459.573309 348.546327
275.231014 458.292234 350.081348
275.281556 457.011158 351.616369
275.332098 455.730082 353.151391
275.382640 454.449007 354.686412
275.433181 453.167931 356.221434
275.483723 451.886856 357.756455
275.534265 450.605780 359.291476
275.584807 449.324704 360.826498
275.635349 448.043629 362.361519
275.685891 446.762553 363.896541
275.736433 445.481477 365.431562
275.786975 444.200402 366.966583
275.837516 442.919326 368.501605
275.888058 441.638250 370.036626
275.938600 440.357175 371.571647
275.989142 439.076099 373.106669
276.039684 437.795023 374.641690
276.090226 436.513948 376.176712
276.140768 435.232872 377.711733
276.191310 433.951796 379.246754
276.241852 432.670721 380.781776
276.292393 431.389645 382.316797
276.342935 430.108569 383.851819
276.393477 428.827494 385.386840
276.444019 427.546418 386.921861
276.494561 426.265342 388.456883
276.545103 424.984267 389.991904
276.595645 423.703191 391.526926
276.646187 422.422115 393.061947
276.696729 421.141040 394.596968
276.747270 419.859964 396.131990
276.797812 418.578889 397.667011
276.848354 417.297813 399.202033
276.898896 416.016737 400.737054
276.949438 414.735662 402.272075
276.999980 413.454586 403.807097
277.050522 412.173510 405.342118
277.101064 410.892435 406.877140
277.151606 409.611359 408.412161
277.202147 408.330283 409.947182
277.252689 407.049208 411.482204
277.303231 405.768132 413.017225
277.353773 404.487056 414.552247
277.404315 403.205981 416.087268
277.454857 401.924905 417.622289
277.505399 400.643829 419.157311
277.555941 399.362754 420.692332
277.606483 398.081678 422.227354
277.657024 396.800602 423.762375
277.707566 395.519527 425.297396
277.758108 394.238451 426.832418
277.808650 392.957375 428.367439
277.859192 391.676300 429.902461
277.909734 390.395224 431.437482
277.960276 389.114148 432.972503
278.010818 387.833073 434.507525
278.061359 386.551997 436.042546
278.111901 385.270921 437.577568
278.162443 383.989846 439.112589
278.212985 382.708770 440.647610
278.263527 381.427695 442.182632
278.314069 380.146619 443.717653
278.364611 378.865543 445.252674
278.415153 377.584468 446.787696
278.465695 376.303392 448.322717
278.516236 375.022316 449.857739
278.566778 373.741241 451.392760
278.619698 372.399894 453.000000
279.366690 370.544667 453.011599
280.113683 368.689439 453.023198
280.860675 366.834212 453.034797
281.607667 364.978985 453.046396
282.354659 363.123758 453.057995
283.101651 361.268530 453.069594
283.848644 359.413303 453.081193
284.595636 357.558076 453.092793
285.342628 355.702849 453.104392
286.089620 353.847621 453.115991
286.836612 351.992394 453.127590
287.583605 350.137167 453.139189
288.330597 348.281940 453.150788
289.077589 346.426713 453.162387
289.824581 344.571485 453.173986
290.571573 342.716258 453.185585
291.318566 340.861031 453.197184
292.065558 339.005804 453.208783
292.812550 337.150576 453.220382
293.559542 335.295349 453.231981
294.306534 333.440122 453.243580
295.053527 331.584895 453.255179
295.800519 329.729667 453.266779
296.547511 327.874440 453.278378
297.294503 326.019213 453.289977
298.041495 324.163986 453.301576
298.788488 322.308758 453.313175
299.535480 320.453531 453.324774
300.282472 318.598304 453.336373
301.029464 316.743077 453.347972
301.776456 314.887849 453.359571
302.523449 313.032622 453.371170
303.270441 311.177395 453.382769
304.017433 309.322168 453.394368
304.764425 307.466941 453.405967
305.511417 305.611713 453.417566
306.258410 303.756486 453.429165
307.005402 301.901259 453.440764
307.752394 300.046032 453.452364
308.499386 298.190804 453.463963
309.246378 296.335577 453.475562
309.993371 294.480350 453.487161
310.740363 292.625123 453.498760
311.487355 290.769895 453.510359
312.234347 288.914668 453.521958
312.981339 287.059441 453.533557
313.728332 285.204214 453.545156
314.475324 283.348986 453.556755
315.222316 281.493759 453.568354
315.969308 279.638532 453.579953
316.716301 277.783305 453.591552
317.463293 275.928077 453.603151
318.210285 274.072850 453.614750
318.957277 272.217623 453.626350
319.704269 270.362396 453.637949
320.451262 268.507168 453.649548
321.198254 266.651941 453.661147
321.945246 264.796714 453.672746
322.692238 262.941487 453.684345
323.439230 261.086260 453.695944
324.186223 259.231032 453.707543
324.933215 257.375805 453.719142
325.680207 255.520578 453.730741
326.427199 253.665351 453.742340
327.174191 251.810123 453.753939
327.921184 249.954896 453.765538
328.668176 248.099669 453.777137
329.415168 246.244442 453.788736
330.162160 244.389214 453.800336
330.909152 242.533987 453.811935
331.656145 240.678760 453.823534
332.403137 238.823533 453.835133
333.150129 236.968305 453.846732
333.897121 235.113078 453.858331
334.644113 233.257851 453.869930
335.391106 231.402624 453.881529
336.138098 229.547396 453.893128
336.885090 227.692169 453.904727
337.632082 225.836942 453.916326
338.379074 223.981715 453.927925
339.126067 222.126488 453.939524
339.873059 220.271260 453.951123
340.620051 218.416033 453.962722
341.367043 216.560806 453.974322
342.114035 214.705579 453.985921
342.861028 212.850351 453.997520
343.608020 210.995124 454.009119
344.355012 209.139897 454.020718
345.102004 207.284670 454.032317
345.848996 205.429442 454.043916
346.595989 203.574215 454.055515
347.342981 201.718988 454.067114
348.089973 199.863761 454.078713
348.836965 198.008533 454.090312
349.583957 196.153306 454.101911
350.330950 194.298079 454.113510
351.077942 192.442852 454.125109
351.824934 190.587624 454.136708
352.571926 188.732397 454.148307
353.318919 186.877170 454.159907
354.065911 185.021943 454.171506
354.812903 183.166715 454.183105
355.559895 181.311488 454.194704
356.306887 179.456261 454.206303
357.053880 177.601034 454.217902
357.800872 175.745807 454.229501
358.547864 173.890579 454.241100
359.294856 172.035352 454.252699
360.041848 170.180125 454.264298
360.788841 168.324898 454.275897
361.535833 166.469670 454.287496
362.282825 164.614443 454.299095
363.029817 162.759216 454.310694
363.776809 160.903989 454.322293
364.523802 159.048761 454.333893
365.270794 157.193534 454.345492
366.017786 155.338307 454.357091
366.764778 153.483080 454.368690
367.511770 151.627852 454.380289
368.258763 149.772625 454.391888
369.005755 147.917398 454.403487
369.752747 146.062171 454.415086
370.499739 144.206943 454.426685
371.246731 142.351716 454.438284
371.993724 140.496489 454.449883
372.740716 138.641262 454.461482
373.487708 136.786035 454.473081
374.234700 134.930807 454.484680
374.981692 133.075580 454.496279
375.728685 131.220353 454.507879
376.475677 129.365126 454.519478
377.222669 127.509898 454.531077
377.969661 125.654671 454.542676
378.716653 123.799444 454.554275
379.463646 121.944217 454.565874
380.210638 120.088989 454.577473
380.957630 118.233762 454.589072
381.704622 116.378535 454.600671
382.451614 114.523308 454.612270
383.198607 112.668080 454.623869
383.945599 110.812853 454.635468
384.692591 108.957626 454.647067
385.439583 107.102399 454.658666
386.186575 105.247171 454.670265
386.933568 103.391944 454.681865
387.680560 101.536717 454.693464
388.427552 99.681490 454.705063
389.174544 97.826262 454.716662
389.921537 95.971035 454.728261
390.668529 94.115808 454.739860
391.415521 92.260581 454.751459
392.162513 90.405354 454.763058
392.909505 88.550126 454.774657
393.656498 86.694899 454.786256
394.403490 84.839672 454.797855
395.150482 82.984445 454.809454
395.897474 81.129217 454.821053
396.644466 79.273990 454.832652
397.391459 77.418763 454.844251
398.138451 75.563536 454.855851
398.885443 73.708308 454.867450
399.632435 71.853081 454.879049
400.379427 69.997854 454.890648
401.126420 68.142627 454.902247
401.873412 66.287399 454.913846
402.620404 64.432172 454.925445
403.367396 62.576945 454.937044
404.114388 60.721718 454.948643
404.861381 58.866490 454.960242
405.608373 57.011263 454.971841
406.355365 55.156036 454.983440
407.421832 52.507362 455.000000
408.226672 51.620617 456.601848
409.031513 50.733873 458.203696
409.836353 49.847129 459.805544
410.641193 48.960384 461.407392
411.446033 48.073640 463.009240
412.250873 47.186896 464.611087
413.055714 46.300151 466.212935
413.860554 45.413407 467.814783
414.665394 44.526662 469.416631
415.470234 43.639918 471.018479
416.275074 42.753174 472.620327
417.079915 41.866429 474.222175
417.884755 40.979685 475.824023
418.689595 40.092941 477.425871
419.494435 39.206196 479.027719
420.299275 38.319452 480.629567
421.104116 37.432708 482.231414
421.908956 36.545963 483.833262
422.713796 35.659219 485.435110
423.518636 34.772475 487.036958
424.323476 33.885730 488.638806
425.128317 32.998986 490.240654
425.933157 32.112242 491.842502
426.737997 31.225497 493.444350
427.542837 30.338753 495.046198
428.347677 29.452009 496.648046
429.152517 28.565264 498.249894
429.957358 27.678520 499.851742
430.762198 26.791776 501.453589
431.567038 25.905031 503.055437
432.371878 25.018287 504.657285
433.176718 24.131543 506.259133
433.981559 23.244798 507.860981
434.786399 22.358054 509.462829
435.591239 21.471309 511.064677
436.396079 20.584565 512.666525
437.200919 19.697821 514.268373
438.005760 18.811076 515.870221
438.810600 17.924332 517.472069
439.615440 17.037588 519.073916
440.420280 16.150843 520.675764
441.225120 15.264099 522.277612
442.029961 14.377355 523.879460
442.834801 13.490610 525.481308
443.639641 12.603866 527.083156
444.444481 11.717122 528.685004
445.249321 10.830377 530.286852
446.054162 9.943633 531.888700
446.859002 9.056889 533.490548
447.663842 8.170144 535.092396
448.468682 7.283400 536.694243
449.273522 6.396656 538.296091
450.078362 5.509911 539.897939
450.883203 4.623167 541.499787
451.688043 3.736423 543.101635
452.492883 2.849678 544.703483
453.297723 1.962934 546.305331
454.102563 1.076190 547.907179
454.907404 0.189445 549.509027
455.712244 -0.697299 551.110875
456.517084 -1.584044 552.712723
457.321924 -2.470788 554.314570
458.126764 -3.357532 555.916418
458.931605 -4.244277 557.518266
459.736445 -5.131021 559.120114
460.541285 -6.017765 560.721962
461.346125 -6.904510 562.323810
462.150965 -7.791254 563.925658
462.955806 -8.677998 565.527506
463.760646 -9.564743 567.129354
464.565486 -10.451487 568.731202
465.370326 -11.338231 570.333050
466.175166 -12.224976 571.934897
466.980007 -13.111720 573.536745
467.784847 -13.998464 575.138593
468.589687 -14.885209 576.740441
469.394527 -15.771953 578.342289
470.199367 -16.658697 579.944137
471.004208 -17.545442 581.545985
471.809048 -18.432186 583.147833
472.613888 -19.318930 584.749681
473.418728 -20.205675 586.351529
474.223568 -21.092419 587.953377
475.028408 -21.979163 589.555225
475.833249 -22.865908 591.157072
476.638089 -23.752652 592.758920
477.442929 -24.639396 594.360768
478.247769 -25.526141 595.962616
479.052609 -26.412885 597.564464
479.857450 -27.299630 599.166312
480.662290 -28.186374 600.768160
481.467130 -29.073118 602.370008
482.271970 -29.959863 603.971856
483.076810 -30.846607 605.573704
483.881651 -31.733351 607.175552
484.686491 -32.620096 608.777399
485.491331 -33.506840 610.379247
486.296171 -34.393584 611.981095
487.101011 -35.280329 613.582943
487.905852 -36.167073 615.184791
488.710692 -37.053817 616.786639
489.515532 -37.940562 618.388487
490.320372 -38.827306 619.990335
491.125212 -39.714050 621.592183
491.930053 -40.600795 623.194031
492.734893 -41.487539 624.795879
493.539733 -42.374283 626.397726
494.344573 -43.261028 627.999574
495.149413 -44.147772 629.601422
495.954253 -45.034516 631.203270
496.759094 -45.921261 632.805118
497.563934 -46.808005 634.406966
498.368774 -47.694749 636.008814
499.173614 -48.581494 637.610662
499.978454 -49.468238 639.212510
500.783295 -50.354983 640.814358
501.588135 -51.241727 642.416206
502.392975 -52.128471 644.018053
503.197815 -53.015216 645.619901
504.002655 -53.901960 647.221749
504.807496 -54.788704 648.823597
505.612336 -55.675449 650.425445
506.417176 -56.562193 652.027293
507.222016 -57.448937 653.629141
508.026856 -58.335682 655.230989
508.831697 -59.222426 656.832837
509.636537 -60.109170 658.434685
510.441377 -60.995915 660.036533
511.246217 -61.882659 661.638380
512.051057 -62.769403 663.240228
512.855898 -63.656148 664.842076
513.660738 -64.542892 666.443924
514.465578 -65.429636 668.045772
515.270418 -66.316381 669.647620
516.075258 -67.203125 671.249468
516.880098 -68.089869 672.851316
517.684939 -68.976614 674.453164
518.489779 -69.863358 676.055012
519.294619 -70.750102 677.656860
520.099459 -71.636847 679.258708
520.904299 -72.523591 680.860555
521.709140 -73.410336 682.462403
522.513980 -74.297080 684.064251
523.318820 -75.183824 685.666099
524.123660 -76.070569 687.267947
524.928500 -76.957313 688.869795
525.733341 -77.844057 690.471643
526.538181 -78.730802 692.073491
527.343021 -79.617546 693.675339
528.147861 -80.504290 695.277187
528.952701 -81.391035 696.879035
529.757542 -82.277779 698.480882
530.562382 -83.164523 700.082730
531.367222 -84.051268 701.684578
532.172062 -84.938012 703.286426
532.976902 -85.824756 704.888274
533.781743 -86.711501 706.490122
534.586583 -87.598245 708.091970
535.391423 -88.484989 709.693818
536.196263 -89.371734 711.295666
537.001103 -90.258478 712.897514
537.805944 -91.145222 714.499362
538.610784 -92.031967 716.101209
539.415624 -92.918711 717.703057
540.220464 -93.805455 719.304905
541.025304 -94.692200 720.906753
541.830144 -95.578944 722.508601
542.634985 -96.465689 724.110449
543.439825 -97.352433 725.712297
544.244665 -98.239177 727.314145
545.049505 -99.125922 728.915993
545.854345 -100.012666 730.517841
546.659186 -100.899410 732.119689
547.464026 -101.786155 733.721536
548.268866 -102.672899 735.323384
549.073706 -103.559643 736.925232
549.878546 -104.446388 738.527080
550.683387 -105.333132 740.128928
551.488227 -106.219876 741.730776
552.293067 -107.106621 743.332624
553.097907 -107.993365 744.934472
553.902747 -108.880109 746.536320
554.707588 -109.766854 748.138168
555.512428 -110.653598 749.740016
556.317268 -111.540342 751.341863
557.122108 -112.427087 752.943711
557.926948 -113.313831 754.545559
558.731789 -114.200575 756.147407
559.536629 -115.087320 757.749255
560.341469 -115.974064 759.351103
561.146309 -116.860808 760.952951
561.951149 -117.747553 762.554799
562.755989 -118.634297 764.156647
563.560830 -119.521042 765.758495
564.365670 -120.407786 767.360343
565.170510 -121.294530 768.962191
565.975350 -122.181275 770.564038
566.780190 -123.068019 772.165886
567.585031 -123.954763 773.767734
568.389871 -124.841508 775.369582
569.194711 -125.728252 776.971430
569.999551 -126.614996 778.573278
570.804391 -127.501741 780.175126
571.609232 -128.388485 781.776974
572.414072 -129.275229 783.378822
573.218912 -130.161974 784.980670
574.023752 -131.048718 786.582518
574.828592 -131.935462 788.184365
575.633433 -132.822207 789.786213
576.438273 -133.708951 791.388061
577.243113 -134.595695 792.989909
578.047953 -135.482440 794.591757
578.852793 -136.369184 796.193605
579.657634 -137.255928 797.795453
580.462474 -138.142673 799.397301
581.267314 -139.029417 800.999149
582.072154 -139.916161 802.600997
582.876994 -140.802906 804.202845
583.681835 -141.689650 805.804692
584.486675 -142.576395 807.406540
585.291515 -143.463139 809.008388
586.096355 -144.349883 810.610236
586.901195 -145.236628 812.212084
587.706035 -146.123372 813.813932
588.510876 -147.010116 815.415780
589.315716 -147.896861 817.017628
590.120556 -148.783605 818.619476
590.925396 -149.670349 820.221324
591.730236 -150.557094 821.823172
592.535077 -151.443838 823.425019
593.339917 -152.330582 825.026867
594.144757 -153.217327 826.628715
594.949597 -154.104071 828.230563
595.754437 -154.990815 829.832411
596.559278 -155.877560 831.434259
597.364118 -156.764304 833.036107
598.168958 -157.651048 834.637955
598.973798 -158.537793 836.239803
599.778638 -159.424537 837.841651
600.583479 -160.311281 839.443499
601.388319 -161.198026 841.045346
602.193159 -162.084770 842.647194
602.997999 -162.971514 844.249042
603.802839 -163.858259 845.850890
604.607680 -164.745003 847.452738
605.412520 -165.631747 849.054586
606.217360 -166.518492 850.656434
607.022200 -167.405236 852.258282
607.827040 -168.291981 853.860130
608.631880 -169.178725 855.461978
609.436721 -170.065469 857.063826
610.241561 -170.952214 858.665674
611.046401 -171.838958 860.267521
611.851241 -172.725702 861.869369
612.656081 -173.612447 863.471217
613.460922 -174.499191 865.073065
614.265762 -175.385935 866.674913
615.070602 -176.272680 868.276761
615.875442 -177.159424 869.878609
616.680282 -178.046168 871.480457
617.485123 -178.932913 873.082305
618.289963 -179.819657 874.684153
619.094803 -180.706401 876.286001
619.899643 -181.593146 877.887848
620.704483 -182.479890 879.489696
621.509324 -183.366634 881.091544
622.314164 -184.253379 882.693392
623.119004 -185.140123 884.295240
623.923844 -186.026867 885.897088
624.728684 -186.913612 887.498936
625.533525 -187.800356 889.100784
626.338365 -188.687100 890.702632
627.143205 -189.573845 892.304480
627.948045 -190.460589 893.906328
629.000000 -191.619596 896.000000
629.000000 -191.619596 898.000000
629.000000 -191.619596 900.000000
629.000000 -191.619596 902.000000
629.000000 -191.619596 904.000000
629.000000 -191.619596 906.000000
629.000000 -191.619596 908.000000
629.000000 -191.619596 910.000000
629.000000 -191.619596 912.000000
629.000000 -191.619596 914.000000
629.000000 -191.619596 916.000000
629.000000 -191.619596 918.000000
629.000000 -191.619596 920.000000
629.000000 -191.619596 922.000000
629.000000 -191.619596 924.000000
629.000000 -191.619596 928.000000
627.481793 -190.318358 928.042766
625.963586 -189.017121 928.085533
624.445379 -187.715884 928.128299
622.927172 -186.414646 928.171066
621.408965 -185.113409 928.213832
619.890758 -183.812172 928.256598
618.372551 -182.510934 928.299365
616.854344 -181.209697 928.342131
615.336137 -179.908460 928.384898
613.817930 -178.607222 928.427664
612.299723 -177.305985 928.470430
610.781516 -176.004747 928.513197
609.263309 -174.703510 928.555963
607.745103 -173.402273 928.598730
606.226896 -172.101035 928.641496
604.708689 -170.799798 928.684262
603.190482 -169.498561 928.727029
601.672275 -168.197323 928.769795
600.154068 -166.896086 928.812561
598.635861 -165.594849 928.855328
597.117654 -164.293611 928.898094
595.599447 -162.992374 928.940861
594.081240 -161.691137 928.983627
592.563033 -160.389899 929.026393
591.044826 -159.088662 929.069160
589.526619 -157.787425 929.111926
588.008412 -156.486187 929.154693
586.490205 -155.184950 929.197459
584.971998 -153.883712 929.240225
583.453791 -152.582475 929.282992
581.935584 -151.281238 929.325758
580.417377 -149.980000 929.368525
578.899170 -148.678763 929.411291
577.380963 -147.377526 929.454057
575.862756 -146.076288 929.496824
574.344549 -144.775051 929.539590
572.826342 -143.473814 929.582357
571.308135 -142.172576 929.625123
569.789928 -140.871339 929.667889
568.271721 -139.570102 929.710656
566.753514 -138.268864 929.753422
565.235308 -136.967627 929.796189
563.717101 -135.666390 929.838955
562.198894 -134.365152 929.881721
560.680687 -133.063915 929.924488
559.162480 -131.762677 929.967254
557.644273 -130.461440 930.010020
556.126066 -129.160203 930.052787
554.607859 -127.858965 930.095553
553.089652 -126.557728 930.138320
551.571445 -125.256491 930.181086
550.053238 -123.955253 930.223852
548.535031 -122.654016 930.266619
547.016824 -121.352779 930.309385
545.498617 -120.051541 930.352152
543.980410 -118.750304 930.394918
542.462203 -117.449067 930.437684
540.943996 -116.147829 930.480451
539.425789 -114.846592 930.523217
537.907582 -113.545354 930.565984
536.389375 -112.244117 930.608750
534.871168 -110.942880 930.651516
533.352961 -109.641642 930.694283
531.834754 -108.340405 930.737049
530.316547 -107.039168 930.779816
528.798340 -105.737930 930.822582
527.280133 -104.436693 930.865348
525.761926 -103.135456 930.908115
524.243720 -101.834218 930.950881
522.725513 -100.532981 930.993648
521.207306 -99.231744 931.036414
519.689099 -97.930506 931.079180
518.170892 -96.629269 931.121947
516.652685 -95.328032 931.164713
515.134478 -94.026794 931.207480
513.616271 -92.725557 931.250246
512.098064 -91.424319 931.293012
510.579857 -90.123082 931.335779
509.061650 -88.821845 931.378545
507.543443 -87.520607 931.421311
506.025236 -86.219370 931.464078
504.507029 -84.918133 931.506844
502.988822 -83.616895 931.549611
501.470615 -82.315658 931.592377
499.952408 -81.014421 931.635143
498.434201 -79.713183 931.677910
496.915994 -78.411946 931.720676
495.397787 -77.110709 931.763443
493.879580 -75.809471 931.806209
492.361373 -74.508234 931.848975
490.843166 -73.206997 931.891742
489.324959 -71.905759 931.934508
487.806752 -70.604522 931.977275
486.288545 -69.303284 932.020041
484.770338 -68.002047 932.062807
483.252131 -66.700810 932.105574
481.733925 -65.399572 932.148340
480.215718 -64.098335 932.191107
478.697511 -62.797098 932.233873
477.179304 -61.495860 932.276639
475.661097 -60.194623 932.319406
474.142890 -58.893386 932.362172
472.624683 -57.592148 932.404939
471.106476 -56.290911 932.447705
469.588269 -54.989674 932.490471
468.070062 -53.688436 932.533238
466.551855 -52.387199 932.576004
465.033648 -51.085962 932.618770
463.515441 -49.784724 932.661537
461.997234 -48.483487 932.704303
460.479027 -47.182249 932.747070
458.960820 -45.881012 932.789836
457.442613 -44.579775 932.832602
455.924406 -43.278537 932.875369
454.406199 -41.977300 932.918135
452.887992 -40.676063 932.960902
451.369785 -39.374825 933.003668
449.851578 -38.073588 933.046434
448.333371 -36.772351 933.089201
446.815164 -35.471113 933.131967
445.296957 -34.169876 933.174734
443.778750 -32.868639 933.217500
442.260543 -31.567401 933.260266
440.742337 -30.266164 933.303033
439.224130 -28.964926 933.345799
437.705923 -27.663689 933.388566
436.187716 -26.362452 933.431332
434.669509 -25.061214 933.474098
433.151302 -23.759977 933.516865
431.633095 -22.458740 933.559631
430.114888 -21.157502 933.602398
428.596681 -19.856265 933.645164
427.078474 -18.555028 933.687930
425.560267 -17.253790 933.730697
424.042060 -15.952553 933.773463
422.523853 -14.651316 933.816229
421.005646 -13.350078 933.858996
419.487439 -12.048841 933.901762
417.969232 -10.747604 933.944529
416.451025 -9.446366 933.987295
414.932818 -8.145129 934.030061
413.414611 -6.843891 934.072828
411.896404 -5.542654 934.115594
410.378197 -4.241417 934.158361
408.859990 -2.940179 934.201127
407.341783 -1.638942 934.243893
405.823576 -0.337705 934.286660
404.305369 0.963533 934.329426
402.787162 2.264770 934.372193
401.268955 3.566007 934.414959
399.750748 4.867245 934.457725
398.232542 6.168482 934.500492
396.714335 7.469719 934.543258
395.196128 8.770957 934.586025
393.677921 10.072194 934.628791
392.159714 11.373431 934.671557
390.641507 12.674669 934.714324
389.123300 13.975906 934.757090
387.605093 15.277144 934.799857
386.086886 16.578381 934.842623
384.568679 17.879618 934.885389
383.050472 19.180856 934.928156
381.532265 20.482093 934.970922
380.014058 21.783330 935.013689
378.495851 23.084568 935.056455
376.977644 24.385805 935.099221
375.459437 25.687042 935.141988
373.941230 26.988280 935.184754
372.423023 28.289517 935.227520
370.904816 29.590754 935.270287
369.386609 30.891992 935.313053
367.868402 32.193229 935.355820
366.350195 33.494467 935.398586
364.831988 34.795704 935.441352
363.313781 36.096941 935.484119
361.795574 37.398179 935.526885
360.277367 38.699416 935.569652
358.759160 40.000653 935.612418
357.240954 41.301891 935.655184
355.722747 42.603128 935.697951
354.204540 43.904365 935.740717
352.686333 45.205603 935.783484
351.168126 46.506840 935.826250
349.649919 47.808077 935.869016
348.131712 49.109315 935.911783
346.613505 50.410552 935.954549
345.095298 51.711789 935.997316
343.577091 53.013027 936.040082
342.058884 54.314264 936.082848
340.540677 55.615502 936.125615
339.022470 56.916739 936.168381
337.504263 58.217976 936.211148
335.986056 59.519214 936.253914
334.467849 60.820451 936.296680
332.949642 62.121688 936.339447
331.431435 63.422926 936.382213
329.913228 64.724163 936.424979
328.395021 66.025400 936.467746
326.876814 67.326638 936.510512
325.358607 68.627875 936.553279
323.840400 69.929112 936.596045
322.322193 71.230350 936.638811
320.803986 72.531587 936.681578
319.285779 73.832824 936.724344
317.767572 75.134062 936.767111
316.249366 76.435299 936.809877
314.731159 77.736537 936.852643
313.212952 79.037774 936.895410
311.694745 80.339011 936.938176
310.176538 81.640249 936.980943
308.658331 82.941486 937.023709
307.140124 84.242723 937.066475
305.621917 85.543961 937.109242
304.103710 86.845198 937.152008
302.585503 88.146435 937.194775
301.067296 89.447673 937.237541
299.549089 90.748910 937.280307
298.030882 92.050147 937.323074
296.512675 93.351385 937.365840
294.994468 94.652622 937.408607
293.476261 95.953859 937.451373
291.958054 97.255097 937.494139
290.439847 98.556334 937.536906
288.921640 99.857572 937.579672
287.403433 101.158809 937.622439
285.885226 102.460046 937.665205
284.367019 103.761284 937.707971
282.848812 105.062521 937.750738
281.330605 106.363758 937.793504
279.812398 107.664996 937.836270
278.294191 108.966233 937.879037
276.775984 110.267470 937.921803
275.257777 111.568708 937.964570
273.739571 112.869945 938.007336
272.221364 114.171182 938.050102
270.703157 115.472420 938.092869
269.184950 116.773657 938.135635
267.666743 118.074895 938.178402
266.148536 119.376132 938.221168
264.630329 120.677369 938.263934
263.112122 121.978607 938.306701
261.593915 123.279844 938.349467
260.075708 124.581081 938.392234
258.557501 125.882319 938.435000
257.039294 127.183556 938.477766
255.521087 128.484793 938.520533
254.002880 129.786031 938.563299
252.484673 131.087268 938.606066
250.966466 132.388505 938.648832
249.448259 133.689743 938.691598
247.930052 134.990980 938.734365
246.411845 136.292217 938.777131
244.893638 137.593455 938.819898
243.375431 138.894692 938.862664
241.857224 140.195930 938.905430
240.339017 141.497167 938.948197
238.820810 142.798404 938.990963
237.302603 144.099642 939.033729
235.784396 145.400879 939.076496
234.266189 146.702116 939.119262
232.747983 148.003354 939.162029
231.229776 149.304591 939.204795
229.711569 150.605828 939.247561
228.193362 151.907066 939.290328
226.675155 153.208303 939.333094
225.156948 154.509540 939.375861
223.638741 155.810778 939.418627
222.120534 157.112015 939.461393
220.602327 158.413252 939.504160
219.084120 159.714490 939.546926
217.565913 161.015727 939.589693
216.047706 162.316965 939.632459
214.529499 163.618202 939.675225
213.011292 164.919439 939.717992
211.493085 166.220677 939.760758
209.974878 167.521914 939.803525
208.456671 168.823151 939.846291
206.938464 170.124389 939.889057
205.420257 171.425626 939.931824
203.000000 173.500000 940.000000
202.757771 171.514723 940.000000
202.515542 169.529446 940.000000
202.273314 167.544169 940.000000
202.031085 165.558892 940.000000
201.788856 163.573614 940.000000
201.546627 161.588337 940.000000
201.304399 159.603060 940.000000
201.062170 157.617783 940.000000
200.819941 155.632506 940.000000
200.577712 153.647229 940.000000
200.335483 151.661952 940.000000
200.093255 149.676675 940.000000
199.851026 147.691398 940.000000
199.608797 145.706120 940.000000
199.366568 143.720843 940.000000
199.124340 141.735566 940.000000
198.882111 139.750289 940.000000
198.639882 137.765012 940.000000
198.397653 135.779735 940.000000
198.155424 133.794458 940.000000
197.913196 131.809181 940.000000
197.670967 129.823903 940.000000
197.428738 127.838626 940.000000
197.186509 125.853349 940.000000
196.944281 123.868072 940.000000
196.702052 121.882795 940.000000
196.459823 119.897518 940.000000
196.217594 117.912241 940.000000
195.975365 115.926964 940.000000
195.733137 113.941687 940.000000
195.490908 111.956409 940.000000
195.248679 109.971132 940.000000
195.006450 107.985855 940.000000
194.764221 106.000578 940.000000
194.521993 104.015301 940.000000
194.279764 102.030024 940.000000
194.037535 100.044747 940.000000
193.795306 98.059470 940.000000
193.553078 96.074193 940.000000
193.310849 94.088915 940.000000
193.068620 92.103638 940.000000
192.826391 90.118361 940.000000
192.584162 88.133084 940.000000
192.341934 86.147807 940.000000
192.099705 84.162530 940.000000
191.857476 82.177253 940.000000
191.615247 80.191976 940.000000
191.373019 78.206699 940.000000
191.130790 76.221421 940.000000
190.888561 74.236144 940.000000
190.646332 72.250867 940.000000
190.404103 70.265590 940.000000
190.161875 68.280313 940.000000
189.919646 66.295036 940.000000
189.677417 64.309759 940.000000
189.435188 62.324482 940.000000
189.192960 60.339205 940.000000
188.950731 58.353927 940.000000
188.708502 56.368650 940.000000
188.466273 54.383373 940.000000
188.224044 52.398096 940.000000
187.981816 50.412819 940.000000
187.739587 48.427542 940.000000
187.497358 46.442265 940.000000
187.255129 44.456988 940.000000
187.012901 42.471710 940.000000
186.770672 40.486433 940.000000
186.528443 38.501156 940.000000
186.286214 36.515879 940.000000
186.043985 34.530602 940.000000
185.801757 32.545325 940.000000
185.559528 30.560048 940.000000
185.317299 28.574771 940.000000
185.075070 26.589494 940.000000
184.832842 24.604216 940.000000
184.590613 22.618939 940.000000
184.348384 20.633662 940.000000
184.106155 18.648385 940.000000
183.863926 16.663108 940.000000
183.621698 14.677831 940.000000
183.379469 12.692554 940.000000
183.137240 10.707277 940.000000
182.895011 8.722000 940.000000
182.652782 6.736722 940.000000
182.410554 4.751445 940.000000
182.168325 2.766168 940.000000
181.926096 0.780891 940.000000
181.683867 -1.204386 940.000000
181.441639 -3.189663 940.000000
181.199410 -5.174940 940.000000
180.957181 -7.160217 940.000000
180.714952 -9.145494 940.000000
180.472723 -11.130772 940.000000
180.230495 -13.116049 940.000000
179.988266 -15.101326 940.000000
179.746037 -17.086603 940.000000
179.503808 -19.071880 940.000000
179.261580 -21.057157 940.000000
179.019351 -23.042434 940.000000
178.777122 -25.027711 940.000000
178.534893 -27.012988 940.000000
178.292664 -28.998266 940.000000
178.050436 -30.983543 940.000000
177.808207 -32.968820 940.000000
177.565978 -34.954097 940.000000
177.323749 -36.939374 940.000000
177.081521 -38.924651 940.000000
176.839292 -40.909928 940.000000
176.597063 -42.895205 940.000000
176.354834 -44.880483 940.000000
176.112605 -46.865760 940.000000
175.870377 -48.851037 940.000000
175.628148 -50.836314 940.000000
175.385919 -52.821591 940.000000
175.143690 -54.806868 940.000000
174.901462 -56.792145 940.000000
174.659233 -58.777422 940.000000
174.417004 -60.762699 940.000000
174.174775 -62.747977 940.000000
173.932546 -64.733254 940.000000
173.690318 -66.718531 940.000000
173.448089 -68.703808 940.000000
173.205860 -70.689085 940.000000
172.963631 -72.674362 940.000000
172.721403 -74.659639 940.000000
172.479174 -76.644916 940.000000
172.236945 -78.630193 940.000000
171.994716 -80.615471 940.000000
171.752487 -82.600748 940.000000
171.510259 -84.586025 940.000000
171.268030 -86.571302 940.000000
171.025801 -88.556579 940.000000
170.783572 -90.541856 940.000000
170.541343 -92.527133 940.000000
170.299115 -94.512410 940.000000
170.056886 -96.497687 940.000000
169.814657 -98.482965 940.000000
169.572428 -100.468242 940.000000
169.330200 -102.453519 940.000000
169.087971 -104.438796 940.000000
168.845742 -106.424073 940.000000
168.603513 -108.409350 940.000000
168.361284 -110.394627 940.000000
168.119056 -112.379904 940.000000
167.876827 -114.365181 940.000000
167.634598 -116.350459 940.000000
167.392369 -118.335736 940.000000
167.150141 -120.321013 940.000000
166.907912 -122.306290 940.000000
166.665683 -124.291567 940.000000
166.423454 -126.276844 940.000000
166.181225 -128.262121 940.000000
165.938997 -130.247398 940.000000
165.696768 -132.232676 940.000000
165.454539 -134.217953 940.000000
165.212310 -136.203230 940.000000
164.970082 -138.188507 940.000000
164.727853 -140.173784 940.000000
164.485624 -142.159061 940.000000
164.243395 -144.144338 940.000000
164.001166 -146.129615 940.000000
163.758938 -148.114892 940.000000
163.516709 -150.100170 940.000000
163.274480 -152.085447 940.000000
163.032251 -154.070724 940.000000
162.790023 -156.056001 940.000000
162.547794 -158.041278 940.000000
162.305565 -160.026555 940.000000
162.063336 -162.011832 940.000000
161.821107 -163.997109 940.000000
161.578879 -165.982386 940.000000
161.336650 -167.967664 940.000000
161.094421 -169.952941 940.000000
160.852192 -171.938218 940.000000
160.609964 -173.923495 940.000000
160.367735 -175.908772 940.000000
160.125506 -177.894049 940.000000
159.883277 -179.879326 940.000000
159.641048 -181.864603 940.000000
159.398820 -183.849880 940.000000
159.156591 -185.835158 940.000000
158.914362 -187.820435 940.000000
158.672133 -189.805712 940.000000
158.429904 -191.790989 940.000000
158.187676 -193.776266 940.000000
157.945447 -195.761543 940.000000
157.703218 -197.746820 940.000000
157.460989 -199.732097 940.000000
157.218761 -201.717374 940.000000
156.976532 -203.702652 940.000000
156.734303 -205.687929 940.000000
156.492074 -207.673206 940.000000
156.249845 -209.658483 940.000000
156.007617 -211.643760 940.000000
155.765388 -213.629037 940.000000
155.523159 -215.614314 940.000000
155.280930 -217.599591 940.000000
155.038702 -219.584869 940.000000
154.796473 -221.570146 940.000000
154.500000 -224.000000 940.000000
154.549251 -224.049251 938.001213
154.598503 -224.098503 936.002426
154.647754 -224.147754 934.003640
154.697006 -224.197006 932.004853
154.746257 -224.246257 930.006066
154.795509 -224.295509 928.007279
154.844760 -224.344760 926.008493
154.894011 -224.394011 924.009706
154.943263 -224.443263 922.010919
154.992514 -224.492514 920.012132
155.041766 -224.541766 918.013345
155.091017 -224.591017 916.014559
155.140268 -224.640268 914.015772
155.189520 -224.689520 912.016985
155.238771 -224.738771 910.018198
155.288023 -224.788023 908.019412
155.337274 -224.837274 906.020625
155.386526 -224.886526 904.021838
155.435777 -224.935777 902.023051
155.485028 -224.985028 900.024264
155.534280 -225.034280 898.025478
155.583531 -225.083531 896.026691
155.632783 -225.132783 894.027904
155.682034 -225.182034 892.029117
155.731285 -225.231285 890.030330
155.780537 -225.280537 888.031544
155.829788 -225.329788 886.032757
155.879040 -225.379040 884.033970
155.928291 -225.428291 882.035183
155.977543 -225.477543 880.036397
156.026794 -225.526794 878.037610
156.076045 -225.576045 876.038823
156.125297 -225.625297 874.040036
156.174548 -225.674548 872.041249
156.223800 -225.723800 870.042463
156.273051 -225.773051 868.043676
156.322303 -225.822303 866.044889
156.371554 -225.871554 864.046102
156.420805 -225.920805 862.047316
156.470057 -225.970057 860.048529
156.519308 -226.019308 858.049742
156.568560 -226.068560 856.050955
156.617811 -226.117811 854.052168
156.667062 -226.167062 852.053382
156.716314 -226.216314 850.054595
156.765565 -226.265565 848.055808
156.814817 -226.314817 846.057021
156.864068 -226.364068 844.058235
156.913320 -226.413320 842.059448
156.962571 -226.462571 840.060661
157.011822 -226.511822 838.061874
157.061074 -226.561074 836.063087
157.110325 -226.610325 834.064301
157.159577 -226.659577 832.065514
157.208828 -226.708828 830.066727
157.258080 -226.758080 828.067940
157.307331 -226.807331 826.069153
157.356582 -226.856582 824.070367
157.405834 -226.905834 822.071580
157.455085 -226.955085 820.072793
157.504337 -227.004337 818.074006
157.553588 -227.053588 816.075220
157.602839 -227.102839 814.076433
157.652091 -227.152091 812.077646
157.701342 -227.201342 810.078859
157.750594 -227.250594 808.080072
157.799845 -227.299845 806.081286
157.849097 -227.349097 804.082499
157.898348 -227.398348 802.083712
157.947599 -227.447599 800.084925
157.996851 -227.496851 798.086139
158.046102 -227.546102 796.087352
158.095354 -227.595354 794.088565
158.144605 -227.644605 792.089778
158.193856 -227.693856 790.090991
158.243108 -227.743108 788.092205
158.292359 -227.792359 786.093418
158.341611 -227.841611 784.094631
158.390862 -227.890862 782.095844
158.440114 -227.940114 780.097058
158.489365 -227.989365 778.098271
158.538616 -228.038616 776.099484
158.587868 -228.087868 774.100697
158.637119 -228.137119 772.101910
158.686371 -228.186371 770.103124
158.735622 -228.235622 768.104337
158.784874 -228.284874 766.105550
158.834125 -228.334125 764.106763
158.883376 -228.383376 762.107977
158.932628 -228.432628 760.109190
158.981879 -228.481879 758.110403
159.031131 -228.531131 756.111616
159.080382 -228.580382 754.112829
159.129633 -228.629633 752.114043
159.178885 -228.678885 750.115256
159.228136 -228.728136 748.116469
159.277388 -228.777388 746.117682
159.326639 -228.826639 744.118895
159.375891 -228.875891 742.120109
159.425142 -228.925142 740.121322
159.474393 -228.974393 738.122535
159.523645 -229.023645 736.123748
159.572896 -229.072896 734.124962
159.622148 -229.122148 732.126175
159.671399 -229.171399 730.127388
159.720650 -229.220650 728.128601
159.769902 -229.269902 726.129814
159.819153 -229.319153 724.131028
159.868405 -229.368405 722.132241
159.917656 -229.417656 720.133454
159.966908 -229.466908 718.134667
160.016159 -229.516159 716.135881
160.065410 -229.565410 714.137094
160.114662 -229.614662 712.138307
160.163913 -229.663913 710.139520
160.213165 -229.713165 708.140733
160.262416 -229.762416 706.141947
160.311668 -229.811668 704.143160
160.360919 -229.860919 702.144373
160.410170 -229.910170 700.145586
160.459422 -229.959422 698.146800
160.508673 -230.008673 696.148013
160.557925 -230.057925 694.149226
160.607176 -230.107176 692.150439
160.656427 -230.156427 690.151652
160.705679 -230.205679 688.152866
160.754930 -230.254930 686.154079
160.804182 -230.304182 684.155292
160.853433 -230.353433 682.156505
160.902685 -230.402685 680.157718
160.951936 -230.451936 678.158932
161.001187 -230.501187 676.160145
161.050439 -230.550439 674.161358
161.099690 -230.599690 672.162571
161.148942 -230.648942 670.163785
161.198193 -230.698193 668.164998
161.247444 -230.747444 666.166211
161.296696 -230.796696 664.167424
161.345947 -230.845947 662.168637
161.395199 -230.895199 660.169851
161.444450 -230.944450 658.171064
161.493702 -230.993702 656.172277
161.542953 -231.042953 654.173490
161.592204 -231.092204 652.174704
161.641456 -231.141456 650.175917
161.690707 -231.190707 648.177130
161.739959 -231.239959 646.178343
161.789210 -231.289210 644.179556
161.838462 -231.338462 642.180770
161.887713 -231.387713 640.181983
161.936964 -231.436964 638.183196
161.986216 -231.486216 636.184409
162.035467 -231.535467 634.185623
162.084719 -231.584719 632.186836
162.133970 -231.633970 630.188049
162.183221 -231.683221 628.189262
162.232473 -231.732473 626.190475
162.281724 -231.781724 624.191689
162.330976 -231.830976 622.192902
162.380227 -231.880227 620.194115
162.429479 -231.929479 618.195328
162.478730 -231.978730 616.196542
162.527981 -232.027981 614.197755
162.577233 -232.077233 612.198968
162.626484 -232.126484 610.200181
162.675736 -232.175736 608.201394
162.724987 -232.224987 606.202608
162.774239 -232.274239 604.203821
162.823490 -232.323490 602.205034
162.872741 -232.372741 600.206247
162.921993 -232.421993 598.207460
162.971244 -232.471244 596.208674
163.020496 -232.520496 594.209887
163.069747 -232.569747 592.211100
163.118998 -232.618998 590.212313
163.168250 -232.668250 588.213527
163.217501 -232.717501 586.214740
163.266753 -232.766753 584.215953
163.316004 -232.816004 582.217166
163.365256 -232.865256 580.218379
163.414507 -232.914507 578.219593
163.463758 -232.963758 576.220806
163.513010 -233.013010 574.222019
163.562261 -233.062261 572.223232
163.611513 -233.111513 570.224446
163.660764 -233.160764 568.225659
163.710015 -233.210015 566.226872
163.759267 -233.259267 564.228085
163.808518 -233.308518 562.229298
163.857770 -233.357770 560.230512
163.907021 -233.407021 558.231725
163.956273 -233.456273 556.232938
164.005524 -233.505524 554.234151
164.054775 -233.554775 552.235365
164.104027 -233.604027 550.236578
164.153278 -233.653278 548.237791
164.202530 -233.702530 546.239004
164.251781 -233.751781 544.240217
164.301033 -233.801033 542.241431
164.350284 -233.850284 540.242644
164.399535 -233.899535 538.243857
164.448787 -233.948787 536.245070
164.498038 -233.998038 534.246283
164.547290 -234.047290 532.247497
164.596541 -234.096541 530.248710
164.645792 -234.145792 528.249923
164.695044 -234.195044 526.251136
164.744295 -234.244295 524.252350
164.793547 -234.293547 522.253563
164.842798 -234.342798 520.254776
164.892050 -234.392050 518.255989
164.941301 -234.441301 516.257202
164.990552 -234.490552 514.258416
165.039804 -234.539804 512.259629
165.089055 -234.589055 510.260842
165.138307 -234.638307 508.262055
165.187558 -234.687558 506.263269
165.236809 -234.736809 504.264482
165.286061 -234.786061 502.265695
165.335312 -234.835312 500.266908
165.384564 -234.884564 498.268121
165.433815 -234.933815 496.269335
165.483067 -234.983067 494.270548
165.532318 -235.032318 492.271761
165.581569 -235.081569 490.272974
165.630821 -235.130821 488.274188
165.680072 -235.180072 486.275401
165.729324 -235.229324 484.276614
165.778575 -235.278575 482.277827
165.827827 -235.327827 480.279040
165.877078 -235.377078 478.280254
165.926329 -235.426329 476.281467
165.975581 -235.475581 474.282680
166.024832 -235.524832 472.283893
166.074084 -235.574084 470.285106
166.123335 -235.623335 468.286320
166.172586 -235.672586 466.287533
166.221838 -235.721838 464.288746
166.271089 -235.771089 462.289959
166.320341 -235.820341 460.291173
166.369592 -235.869592 458.292386
166.418844 -235.918844 456.293599
